ply
format ascii 1.0
comment Created by CloudCompare v2.11.1 (Anoia)
comment Created 1/27/24 4:57 PM
obj_info Generated by CloudCompare!
element vertex 81
property float x
property float y
property float z
property uchar red
property uchar green
property uchar blue
property float nx
property float ny
property float nz
end_header
8.35315 12.7363 -0.48626 0 0 0 0.603434 0.796645 0.035002 
8.24657 12.7425 -0.597406 0 0 0 0.598448 0.800267 0.037841 
8.30219 12.6586 -0.595833 0 0 0 0.598448 0.800267 0.037841 
8.40037 12.6397 -0.597341 0 0 0 0.598448 0.800267 0.037841 
8.21694 12.6967 -0.707751 0 0 0 0.598448 0.800267 0.037841 
8.27498 12.6171 -0.706113 0 0 0 0.598448 0.800267 0.037841 
8.37395 12.5999 -0.707992 0 0 0 0.598448 0.800267 0.037841 
8.15156 12.7656 -0.821551 0 0 0 0.598448 0.800267 0.037841 
8.2073 12.6818 -0.819362 0 0 0 0.598448 0.800267 0.037841 
8.27236 12.6131 -0.818168 0 0 0 0.598448 0.800267 0.037841 
8.33809 12.5459 -0.817091 0 0 0 0.598448 0.800267 0.037841 
8.42672 12.5132 -0.818289 0 0 0 0.598448 0.800267 0.037841 
8.09831 12.8542 -0.937242 0 0 0 0.598448 0.800267 0.037841 
8.11175 12.7032 -0.92982 0 0 0 0.598448 0.800267 0.037841 
8.17427 12.6308 -0.928146 0 0 0 0.598448 0.800267 0.037841 
8.24165 12.5663 -0.927085 0 0 0 0.598448 0.800267 0.037841 
8.30951 12.503 -0.926131 0 0 0 0.598448 0.800267 0.037841 
8.39458 12.4655 -0.927128 0 0 0 0.598448 0.800267 0.037841 
8.51987 12.4866 -0.93254 0 0 0 0.598448 0.800267 0.037841 
8.12084 12.7174 -1.04337 0 0 0 0.598448 0.800267 0.037841 
8.18237 12.6433 -1.04136 0 0 0 0.598448 0.800267 0.037841 
8.25171 12.5816 -1.0404 0 0 0 0.598448 0.800267 0.037841 
8.32117 12.5205 -1.03952 0 0 0 0.598448 0.800267 0.037841 
8.40816 12.4857 -1.04086 0 0 0 0.598448 0.800267 0.037841 
8.52792 12.4984 -1.04624 0 0 0 0.598448 0.800267 0.037841 
8.07863 12.823 -1.16109 0 0 0 0.598448 0.800267 0.037841 
8.14077 12.7486 -1.15883 0 0 0 0.598448 0.800267 0.037841 
8.22007 12.7015 -1.15908 0 0 0 0.598448 0.800267 0.037841 
8.28546 12.6331 -1.15742 0 0 0 0.598448 0.800267 0.037841 
8.35182 12.5666 -1.15597 0 0 0 0.598448 0.800267 0.037841 
8.44131 12.5349 -1.15776 0 0 0 0.598448 0.800267 0.037841 
8.52047 12.4874 -1.15816 0 0 0 0.598448 0.800267 0.037841 
8.07378 12.8153 -1.27358 0 0 0 0.598448 0.800267 0.037841 
8.15619 12.7728 -1.27427 0 0 0 0.598448 0.800267 0.037841 
8.22152 12.7037 -1.27236 0 0 0 0.598448 0.800267 0.037841 
8.28923 12.6388 -1.27089 0 0 0 0.598448 0.800267 0.037841 
8.35733 12.5749 -1.26956 0 0 0 0.598448 0.800267 0.037841 
8.45094 12.5492 -1.27214 0 0 0 0.598448 0.800267 0.037841 
8.52221 12.49 -1.27138 0 0 0 0.598448 0.800267 0.037841 
8.1254 12.8972 -1.39577 0 0 0 0.598448 0.800267 0.037841 
8.17407 12.8008 -1.3907 0 0 0 0.598448 0.800267 0.037841 
8.22018 12.7016 -1.38535 0 0 0 0.598448 0.800267 0.037841 
8.28735 12.636 -1.38367 0 0 0 0.598448 0.800267 0.037841 
8.35501 12.5714 -1.38215 0 0 0 0.598448 0.800267 0.037841 
8.44959 12.5472 -1.38512 0 0 0 0.598448 0.800267 0.037841 
8.58224 12.578 -1.39427 0 0 0 0.598448 0.800267 0.037841 
8.09723 12.8525 -1.50474 0 0 0 0.598448 0.800267 0.037841 
8.20283 12.8458 -1.50978 0 0 0 0.598448 0.800267 0.037841 
8.21966 12.7008 -1.4986 0 0 0 0.598448 0.800267 0.037841 
8.29059 12.6409 -1.49746 0 0 0 0.598448 0.800267 0.037841 
8.34674 12.559 -1.49376 0 0 0 0.598448 0.800267 0.037841 
8.4434 12.5379 -1.49735 0 0 0 0.598448 0.800267 0.037841 
8.54226 12.5194 -1.50132 0 0 0 0.598448 0.800267 0.037841 
8.21738 12.6973 -1.61167 0 0 0 0.598448 0.800267 0.037841 
8.29565 12.6486 -1.61187 0 0 0 0.598448 0.800267 0.037841 
8.35508 12.5715 -1.60851 0 0 0 0.598448 0.800267 0.037841 
8.45146 12.5499 -1.6123 0 0 0 0.598448 0.800267 0.037841 
8.22121 12.7032 -1.72613 0 0 0 0.598448 0.800267 0.037841 
8.29609 12.6493 -1.72564 0 0 0 0.598448 0.800267 0.037841 
8.36793 12.5908 -1.72459 0 0 0 0.598448 0.800267 0.037841 
8.46268 12.5666 -1.7283 0 0 0 0.598448 0.800267 0.037841 
8.23271 12.721 -1.84261 0 0 0 0.598448 0.800267 0.037841 
8.30501 12.6629 -1.84149 0 0 0 0.598448 0.800267 0.037841 
8.38818 12.6213 -1.84284 0 0 0 0.598448 0.800267 0.037841 
8.49198 12.6101 -1.84873 0 0 0 0.598448 0.800267 0.037841 
8.22387 12.7074 -1.95478 0 0 0 0.598448 0.800267 0.037841 
8.30091 12.6566 -1.95472 0 0 0 0.598448 0.800267 0.037841 
8.39499 12.6316 -1.95872 0 0 0 0.598448 0.800267 0.037841 
8.49266 12.6111 -1.96354 0 0 0 0.598448 0.800267 0.037841 
8.22181 12.7042 -2.06863 0 0 0 0.598448 0.800267 0.037841 
8.29827 12.6526 -2.06843 0 0 0 0.598448 0.800267 0.037841 
8.38012 12.6092 -2.06964 0 0 0 0.598448 0.800267 0.037841 
8.48407 12.5984 -2.07632 0 0 0 0.598448 0.800267 0.037841 
8.2268 12.7119 -2.18453 0 0 0 0.598448 0.800267 0.037841 
8.30218 12.6586 -2.18402 0 0 0 0.598448 0.800267 0.037841 
8.36563 12.5874 -2.18049 0 0 0 0.598448 0.800267 0.037841 
8.47986 12.5921 -2.19023 0 0 0 0.598448 0.800267 0.037841 
8.23298 12.7215 -2.30114 0 0 0 0.598448 0.800267 0.037841 
8.30727 12.6664 -2.30029 0 0 0 0.598448 0.800267 0.037841 
8.37818 12.6062 -2.29861 0 0 0 0.598448 0.800267 0.037841 
8.50158 12.6244 -2.31132 0 0 0 0.599201 0.799405 0.0437064 
